# .PCD v0.7 - Point Cloud Data file format
VERSION 0.7
FIELDS x y z
SIZE 4 4 4
TYPE F F F
COUNT 1 1 1
WIDTH 1609
HEIGHT 1
VIEWPOINT 0 0 0 1 0 0 0
POINTS 1609
DATA ascii
-2.6664319 6.1912217 -0.42631784
-2.0114348 6.1538086 -0.44993013
-1.1867663 5.1959958 -0.40053269
-0.76003432 5.8510294 -0.47770789
-2.6131372 6.2064614 -0.27005234
-1.8803984 5.9376092 -0.28750512
0 0 0
-0.71327394 5.8312607 -0.33951783
-2.6053538 6.2091947 -0.11217149
-1.8696512 5.9252863 -0.1433275
-1.1742346 5.4271197 -0.1568751
0 0 0
-0.64237791 5.3096151 -0.96093273
-0.71145171 5.8598037 -0.65766752
-0.65971714 5.8576794 0.23823808
-2.4356997 5.9441338 0.37146476
-0.66445076 5.8726249 0.4785195
-2.4575591 5.9650259 0.78727597
-0.66977203 5.8652253 1.0666846
-2.2837243 5.6832972 1.6305599
-2.5951297 6.2034931 0.040836085
-1.8815188 5.9599757 0
-1.2686489 5.8948684 -0.034500573
-0.69725263 5.8629055 -0.06755928
-2.5656879 6.1966166 0.19321932
-1.8422004 5.9286394 0.1432106
-1.2438501 5.8839884 0.10427812
-0.68136883 5.8597336 0.067500852
0 0 0
-2.4606917 5.9200463 -1.6632138
-2.5559266 6.193984 -0.92547804
-2.5368149 6.1903286 -0.62864441
-2.6231444 6.2096858 -0.42631784
-1.8940365 5.9348931 -0.43283978
-1.1655108 5.2723131 -0.40581778
-0.71856529 5.8512468 -0.47730172
-2.5582831 6.1968555 -0.26884317
-1.8300437 5.9219637 -0.28611284
0 0 0
-0.6719802 5.8311386 -0.33922741
-2.5543187 6.2087445 -0.1118364
-1.8238229 5.9238639 -0.14297935
0 0 0
-0.6723907 5.8173971 -0.20108554
-0.60437036 5.264554 -0.9520269
-0.67666662 5.8639226 -0.65766752
-0.62389606 5.8515558 0.23783153
-2.3929074 5.9399695 0.37030303
-0.62853813 5.8665528 0.47770706
-2.4127831 5.9565134 0.78422922
-0.63545454 5.8640952 1.0657897
-2.2491746 5.6918664 1.6292659
-2.5517294 6.1998491 0.040713914
-1.8368051 5.9372802 0
-1.232631 5.8922887 -0.034442976
-0.66282272 5.8518033 -0.067386493
-2.5234795 6.1923413 0.19263993
-1.8032274 5.9197106 0.14274639
-1.2099843 5.8808374 0.1041036
-0.64856273 5.8533955 0.067385666
0 0 0
-2.427352 5.9390202 -1.6644768
-2.5116637 6.1906919 -0.92272574
-2.4907165 6.1821947 -0.62629169
-2.574739 6.1975036 -0.42441323
-1.8553509 5.9314246 -0.43179342
-1.1236104 5.2253175 -0.40166518
-0.68370366 5.8453875 -0.47648928
-2.5131314 6.1883507 -0.2678355
-1.794457 5.9276257 -0.2858808
0 0 0
0 0 0
-2.5102024 6.1997523 -0.11141753
-1.784927 5.9148173 -0.14251512
-1.1138573 5.4755392 -0.15787068
-0.64090592 5.82095 -0.20108554
-0.57535744 5.2974987 -0.9573704
-0.57717955 5.2800908 -0.5913434
-0.58764505 5.850286 0.23762827
-2.349215 5.9359169 0.36914128
-0.59219408 5.865325 0.47730088
-2.3689961 5.952704 0.78179181
-0.59863031 5.858078 1.0639999
-2.2178657 5.7145014 1.6318541
-2.5062947 6.1967869 0.040591739
-1.7961518 5.9340348 0
-1.1946293 5.8899078 -0.034385379
-0.62706399 5.8557434 -0.067386493
-2.4762971 6.1844501 0.19191574
-1.7627459 5.916245 0.14239821
-1.1711096 5.8734102 0.10384181
-0.61227882 5.8522749 0.067328073
0 0 0
-2.3910277 5.9537373 -1.6644768
-2.46645 6.1875238 -0.91997337
-2.4455628 6.1787868 -0.6244095
-2.5273817 6.1900258 -0.42282605
-1.8132368 5.9235725 -0.43039832
-1.0814999 5.1832747 -0.39789015
-0.64580673 5.8296404 -0.47486442
-2.4660056 6.1803942 -0.26682785
-1.7553753 5.9288993 -0.28541672
0 0 0
0 0 0
-2.4648771 6.1963954 -0.11108244
-1.7445134 5.9112291 -0.14216697
-1.0736351 5.4479136 -0.1568751
0 0 0
-0.53885233 5.306282 -0.95826101
-0.53338701 5.224762 -0.58465523
-0.54530764 5.8493662 0.23742498
-2.2994487 5.9339643 0.36797956
-0.5492872 5.8594875 0.47648844
-2.3173094 5.9463902 0.77874506
-0.55521315 5.8574119 1.0631051
-2.1690443 5.7125511 1.6266776
-2.4515796 6.1917567 0.040439025
-1.7455298 5.9230638 0
-1.1495091 5.8886914 -0.034327783
-0.5811379 5.8403816 -0.067156114
-2.4225066 6.1842523 0.19133636
-1.7127241 5.9101052 0.14193399
-1.124094 5.8724103 0.10366729
-0.56684148 5.8518271 0.06727048
0 0 0
-2.3483627 5.9706941 -1.6644768
-2.4130869 6.1819549 -0.91653293
-2.3922732 6.1729283 -0.62205678
-2.4737368 6.1847959 -0.42123884
-1.7654864 5.9223657 -0.42935193
-1.0621186 5.2839398 -0.40506274
0 0 0
-2.4115286 6.1750431 -0.26582018
-1.7063302 5.922411 -0.28448853
0 0 0
-0.50993633 5.3162246 -0.30844137
-2.4092209 6.1914325 -0.11066359
-1.6959603 5.9097419 -0.14181879
-1.0280584 5.4363527 -0.15630621
0 0 0
-0.49629992 5.2511296 -0.94757402
-0.50294387 5.2926693 -0.59190077
-0.50361019 5.8430758 0.23701844
-2.2508664 5.9312115 0.36681783
-0.5079416 5.8582144 0.47608221
-2.268645 5.9438834 0.7763077
-0.51345682 5.8513427 1.0613154
-2.122364 5.7094522 1.6215013
-2.4010453 6.1900806 0.040316854
-1.7013738 5.9254947 0
-1.1065259 5.8867445 -0.034270186
-0.48657313 5.2567916 -0.060359865
-2.3720965 6.1823554 0.19075699
-1.6673445 5.9074869 0.14158584
-1.0812613 5.8702807 0.10349277
-0.52508914 5.8456826 0.067155294
0 0 0
-2.3083658 5.991456 -1.6657397
-2.3627808 6.1801529 -0.91378057
-2.3420398 6.1708694 -0.62017465
-2.4231999 6.1833377 -0.41996911
-1.7185249 5.91539 -0.42795679
-1.037516 5.3548603 -0.40997031
-0.50787997 5.267777 -0.42814979
-2.362994 6.1777349 -0.26521561
-1.6608905 5.9197536 -0.28379238
0 0 0
-0.46975249 5.2848482 -0.30640835
-2.3588011 6.1894212 -0.1103285
-1.6506213 5.9069963 -0.14147064
-0.98829514 5.4335618 -0.15602174
-0.46851626 5.2506146 -0.18087333
-0.45581529 5.2103515 -0.93955892
-0.46641257 5.301002 -0.59245813
-0.4624165 5.8414679 0.23681515
-2.2006922 5.9233928 0.36536565
-0.46664047 5.8566494 0.47567603
-2.2201293 5.9409881 0.77387029
-0.47220349 5.8498812 1.0604205
-2.0758333 5.7059813 1.6163249
-2.3488739 6.1833301 0.040164135
-1.655921 5.9227834 0
-1.0636263 5.8844857 -0.034212589
-0.45028323 5.2650423 -0.060417462
-2.3200691 6.1753793 0.19003278
-1.6220847 5.9045248 0.14123768
-1.0385133 5.8678403 0.10331824
-0.4838582 5.8442225 0.067097694
0 0 0
-2.2664819 6.0074253 -1.6657397
-2.3108778 6.1733141 -0.91034013
-2.2919521 6.1684103 -0.61829245
-2.3710115 6.1768188 -0.41838193
-1.6703873 5.9032483 -0.42621288
-1.0019327 5.3717761 -0.41072533
-0.47021452 5.2612658 -0.42733735
-2.3127835 6.1753721 -0.26440948
-1.6142546 5.9119334 -0.28286421
0 0 0
-0.43164 5.2730732 -0.30553702
-2.308527 6.1870074 -0.10999341
-1.6054034 5.9039063 -0.14112248
-0.94862115 5.4304824 -0.1557373
-0.43104047 5.2437963 -0.18052784
-0.41631374 5.1741686 -0.9324342
-0.42701811 5.2744107 -0.58911401
-0.42126986 5.8395705 0.23661189
-2.152447 5.9198537 0.36420393
-0.42502972 5.849823 0.47486359
-2.1717644 5.937705 0.77143294
-0.43099561 5.8481297 1.0595256
0 0 0
-2.2986617 6.1808381 0.040041965
-1.6105893 5.9197268 0
-1.0208118 5.8819141 -0.034154993
-0.41467416 5.2830119 -0.060590245
-2.2699847 6.1726685 0.18945342
-1.5769479 5.9012179 0.14088951
-0.99585229 5.8650894 0.10314371
-0.44267327 5.8424716 0.067040101
0 0 0
-2.2244871 6.0231023 -1.6657397
-2.2608936 6.170702 -0.90758777
-2.2420135 6.165554 -0.61641032
-2.3207932 6.1745439 -0.41711217
-1.6278086 5.9099579 -0.42586413
-0.96089208 5.3590093 -0.40921533
-0.42902875 5.2097826 -0.422869
-2.2627215 6.1726108 -0.26360336
-1.5690919 5.9085779 -0.28216806
0 0 0
-0.39481676 5.2759576 -0.30553702
-2.2584021 6.1841955 -0.10965832
-1.5603095 5.9004741 -0.14077431
-0.90903831 5.4271126 -0.15545285
-0.39405221 5.241694 -0.18035507
-0.37911576 5.1622281 -0.92976248
-0.38765642 5.2425733 -0.58521259
-0.38049203 5.8423691 0.23661189
-2.1043589 5.9159303 0.36304218
-0.38385862 5.8476744 0.47445735
-2.1235542 5.9340382 0.76899552
-0.38951254 5.8411779 1.0577359
0 0 0
-2.2468848 6.1732507 0.03988925
-1.5653812 5.916327 0
-0.97808534 5.8790331 -0.034097396
-0.37707925 5.275804 -0.060475059
-2.2200513 6.1695609 0.18887405
-1.5319365 5.8975711 0.14054134
-0.95328033 5.86203 0.10296919
-0.40119806 5.835444 0.066924915
0 0 0
-2.1840324 6.0430336 -1.6670026
-2.2110586 6.1676936 -0.9048354
-2.1955707 6.1716795 -0.61546922
-2.2707219 6.1718698 -0.41584241
-1.5813392 5.9019089 -0.42446899
-0.91838998 5.3361044 -0.40695027
-0.39227813 5.2076812 -0.42246276
-2.2111204 6.1647511 -0.26259568
-1.5240554 5.9048815 -0.28147194
0 0 0
-0.36562297 5.3931365 -0.31221703
-2.2084293 6.1809855 -0.10932322
-1.5153416 5.8967004 -0.14042614
-0.86954892 5.4234567 -0.1551684
0 0 0
0 0 0
-0.34908697 5.215404 -0.58186853
-0.33941072 5.8398962 0.23640862
-2.0564311 5.9116249 0.36188045
-0.34273827 5.8452368 0.47405118
-2.0755012 5.9299879 0.76655817
-0.348436 5.8388443 1.056841
-1.9605595 5.7619147 1.6202072
-2.1970077 6.169951 0.039767075
-1.5202991 5.9125853 0
-0.935449 5.8758421 -0.034039795
-0.37537476 5.8321571 -0.066868134
-2.1669455 6.156631 0.18800499
-1.488278 5.8984289 0.14030924
-0.91079962 5.8586617 0.10279467
-0.36014602 5.8331122 0.066867314
0 0 0
-2.1417911 6.0581341 -1.6670026
-2.1597338 6.1596184 -0.90139496
-2.1442335 6.1633558 -0.6131165
-2.2208018 6.168798 -0.41457269
-1.5350621 5.8934989 -0.42307386
-0.87787485 5.3227077 -0.40544024
-0.35792008 5.2401266 -0.42490008
-2.1613977 6.1611857 -0.26178956
-1.4803629 5.9056883 -0.28100783
0 0 0
0 0 0
-2.1586118 6.1773796 -0.10898813
-1.4705027 5.8925867 -0.14007798
-0.83015472 5.4195137 -0.15488394
0 0 0
-0.34312046 5.7858911 -1.0419753
0 0 0
-0.29838246 5.8371329 0.23620534
-2.010277 5.9116635 0.36100912
-0.3019228 5.847487 0.47405118
-2.0292196 5.9302506 0.7647301
-0.30741096 5.8362217 1.0559462
-1.9172311 5.7662988 1.617619
-2.1456378 6.1615367 0.039614361
-1.4753456 5.9085026 0
-0.89140433 5.8624554 -0.033924602
-0.33436814 5.8296442 -0.066810533
-2.1206505 6.1621604 0.18771531
-1.4434911 5.8941107 0.13996108
-0.86841249 5.8549862 0.10262014
-0.31914613 5.8304915 0.066809721
0 0 0
-2.1010301 6.0775094 -1.6682655
-2.1134591 6.1651788 -0.90001881
-2.0915134 6.1499062 -0.61029327
-2.1677122 6.155921 -0.41266808
-1.3872849 5.4834275 -0.3927297
-0.83681595 5.304081 -0.40355271
0 0 0
-2.1069577 6.1430554 -0.26037884
-1.4367336 5.9061742 -0.28054374
0 0 0
-0.28976142 5.3877468 -0.31163615
-2.1105731 6.1781111 -0.10873681
-1.4234395 5.8784194 -0.1394977
-0.79157889 5.4202313 -0.15474172
-0.3136079 5.8026857 -0.19953077
-0.30423337 5.817627 -1.0473187
-0.30867344 5.8450022 -0.65209401
-0.25740933 5.8340831 0.23600206
-1.9673791 5.9208183 0.36071873
-0.26087525 5.8444738 0.47364494
-1.9830354 5.9301567 0.76290202
-0.26643959 5.8333111 1.0550513
-1.8799195 5.7887273 1.6202072
-2.0977242 6.1621709 0.039522734
-1.4305236 5.9040813 0
-0.84830821 5.8536911 -0.033838209
-0.29366171 5.8318362 -0.066810533
-2.069592 6.1531363 0.1869911
-1.3999943 5.8943191 0.13972898
-0.8268187 5.8559566 0.10253289
-0.27820042 5.8275838 0.066752128
0 0 0
-2.0585504 6.0920291 -1.6682655
-2.060904 6.1516161 -0.8958903
-2.0390861 6.1360235 -0.60747004
-2.1230547 6.1661873 -0.41235062
-1.309652 5.3331461 -0.38121986
-0.79457778 5.2752819 -0.4009102
-0.31547996 5.8218765 -0.47202092
-2.0640204 6.1576147 -0.26037884
-1.3931696 5.9063382 -0.28007966
0 0 0
-0.27199215 5.8234491 -0.33690393
-2.0594547 6.1689916 -0.10831795
-1.3777902 5.8687506 -0.13903348
-0.75234741 5.4157248 -0.15445727
-0.27355051 5.8147168 -0.19987626
-0.26317549 5.8097787 -1.0455376
-0.26741481 5.8370862 -0.65097934
-0.21649337 5.8307447 0.23579879
-1.9229066 5.9249163 0.36013782
-0.2200671 5.8461528 0.47364494
-1.9369519 5.929708 0.76107401
-0.22552381 5.8301134 1.0541564
-1.8365341 5.7925057 1.617619
-2.0467415 6.1529508 0.039370015
-1.3869807 5.9041905 0
-0.80469674 5.8396578 -0.033723015
-0.25188112 5.8087687 -0.066522561
-2.0234563 6.1579409 0.1867014
-1.3554419 5.8893361 0.13938081
-0.78459078 5.851675 0.10235836
-0.23731084 5.8243876 0.066694535
0 0 0
-2.0144496 6.1016593 -1.6670026
-2.0070972 6.132915 -0.8910737
-1.9299489 5.9465742 -0.5872367
-2.0687854 6.1477637 -0.41012856
-1.2411325 5.2111654 -0.37180275
-0.76409155 5.325119 -0.40430775
-0.27459785 5.8189588 -0.47161469
-2.0131884 6.1481409 -0.25937119
-1.2360253 5.4095707 -0.25594687
0 0 0
-0.23133048 5.8252063 -0.33690393
-2.0132294 6.1737156 -0.10815041
-1.3301253 5.8489833 -0.13833717
-0.71386904 5.4158893 -0.15431504
0 0 0
-0.22279325 5.8163905 -1.0464281
-0.22628181 5.8288808 -0.64986467
-0.17578213 5.8321142 0.23579879
-1.8784726 5.9286819 0.35955697
-0.17910038 5.8425646 0.47323874
-1.8924836 5.9336324 0.75985527
-0.18466568 5.8266292 1.0532615
-1.7960504 5.8051858 1.617619
-1.9619079 6.0387363 0.038545355
-1.323505 5.8162293 0
-0.76132268 5.8253007 -0.033607822
-0.21149953 5.8153815 -0.066580154
-1.9023279 5.9292803 0.17931448
-1.3121166 5.8888979 0.13914871
-0.74309123 5.8520503 0.10227109
-0.19647948 5.8209057 0.066636942
0 0 0
-1.9018406 5.8992243 -1.6076471
-1.8901713 5.9156871 -0.85735738
-1.8718034 5.9077191 -0.58206075
-2.0195653 6.1431012 -0.40885884
-1.1968558 5.1856861 -0.36936128
-0.73899883 5.4192467 -0.4111028
-0.23377185 5.8157544 -0.47120848
-1.900041 5.9432092 -0.25010073
0 0 0
0 0 0
0 0 0
-1.89252 5.9447389 -0.10387801
-1.284956 5.8386006 -0.13787295
-0.67542499 5.4157815 -0.15417282
-0.19217728 5.8129745 -0.19970351
-0.18203267 5.8128867 -1.0455376
-0.18558335 5.8303185 -0.64986467
-0.13495161 5.8282046 0.23559552
-1.8326015 5.9273486 0.35868567
-0.13819449 5.8386908 0.4728325
-1.8465759 5.9324889 0.75802726
-0.14386721 5.8228579 1.0523666
-1.7554791 5.8175826 1.617619
-1.8787704 5.9236422 0.037720691
-1.2936391 5.8741536 0
-0.72002423 5.8255119 -0.033579022
-0.17075349 5.8117199 -0.066522561
-1.8533982 5.9185758 0.17859027
-1.2678087 5.8832564 0.13880055
-0.70103121 5.8471684 0.10209657
-0.15583745 5.8221354 0.066636942
0 0 0
-1.8591537 5.9077444 -1.6063842
-1.8429123 5.9098325 -0.85460502
-1.8260911 5.9063792 -0.58064914
-1.9032115 5.9290638 -0.39362183
0 0 0
-0.71199065 5.5083346 -0.4175204
-0.19316484 5.817245 -0.47120848
-1.846565 5.9181867 -0.24848847
-1.1582835 5.4165335 -0.25548279
0 0 0
-0.13946113 5.4037166 -0.31221703
-1.845022 5.938715 -0.10354292
-1.2514567 5.8816504 -0.13868533
-0.63585281 5.4054728 -0.15374613
-0.15133956 5.804184 -0.19935802
-0.14133191 5.8090973 -1.044647
-0.14428185 5.8066354 -0.64707792
-0.094260119 5.8290048 0.23559552
-1.7868409 5.9256649 0.35781437
-0.097351424 5.8345304 0.47242633
-1.8007768 5.9309931 0.75619924
-0.10321282 5.8237205 1.0523666
-1.7148223 5.8296962 1.617619
-1.8314394 5.9175143 0.037598517
0 0 0
-0.68280089 5.8601952 -0.033751812
-0.1301762 5.8127699 -0.066522561
-1.8120339 5.9313707 0.17859027
-1.2236438 5.8772836 0.13845238
-0.65963441 5.8469515 0.10200931
-0.11509356 5.8180828 0.066579342
0 0 0
-1.8164409 5.915956 -1.6051214
-1.7972727 5.9083438 -0.85254073
-1.7833714 5.9142189 -0.58017856
-1.8572838 5.9279261 -0.39266953
-1.1306702 5.2311401 -0.37145394
-0.71152544 5.8249645 -0.44130322
-0.15229623 5.8084884 -0.47039607
-1.8008267 5.9165993 -0.24788389
-1.1143689 5.3951421 -0.25409049
0 0 0
-0.10128869 5.3796048 -0.31076485
-1.7977008 5.9323177 -0.10320783
-1.2073418 5.8755565 -0.13833717
-0.59919548 5.4197164 -0.15403059
0 0 0
0 0 0
-0.10357248 5.797565 -0.64596325
-0.053523038 5.8245254 0.23539224
-1.7397814 5.9188437 0.35665262
-0.056573182 5.8300843 0.47202009
-1.7550887 5.9291482 0.75437123
-0.062505327 5.8193808 1.0514718
-1.674082 5.841526 1.617619
-1.7842858 5.9110155 0.037476346
-1.2054441 5.8622603 0
-0.6418727 5.864819 -0.033751812
-0.089592576 5.8135376 -0.066522561
-1.7662878 5.9295106 0.17815574
-1.1806104 5.8758817 0.13822028
-0.6177507 5.8414712 0.10183479
-0.07447321 5.8187442 0.066579342
0 0 0
-1.7709202 5.9145932 -1.6013327
-1.7489195 5.8970132 -0.84910035
-1.7364074 5.9074273 -0.57829642
-1.8114648 5.9264355 -0.39171723
-1.0869707 5.2047319 -0.36901248
-0.65776187 5.7158666 -0.43262061
-0.1115593 5.7994437 -0.46958363
-1.7494981 5.8955097 -0.24647315
-1.0786324 5.4125857 -0.25455457
0 0 0
-0.063999861 5.4051371 -0.31221703
-1.7534006 5.9351377 -0.10304029
0 0 0
-0.55929291 5.4038811 -0.15346169
-0.066378593 5.4559617 -0.18726525
-0.059978615 5.7859049 -1.040194
-0.062749632 5.7633662 -0.64206183
-0.012859209 5.8247571 0.23539224
-1.6942829 5.9164534 0.35578135
-0.015870465 5.830337 0.47202009
-1.7095141 5.9269552 0.75254315
-0.021877192 5.8196754 1.0514718
-1.6332599 5.8530707 1.617619
-1.7387284 5.9089417 0.037384719
-1.1625397 5.8607244 0
-0.59938961 5.8542352 -0.033665415
-0.04900457 5.8140211 -0.066522561
-1.7192582 5.9225025 0.17757636
-1.1367046 5.8692598 0.13787211
-0.57646525 5.8406663 0.10174753
-0.033824798 5.8141236 0.066521749
0 0 0
-1.7255075 5.9128833 -1.5975441
-1.7063291 5.9043231 -0.84841222
-1.6910001 5.9050522 -0.57688475
-1.7643279 5.9198151 -0.3904475
-1.0535715 5.2268605 -0.3700588
-0.57617962 5.3336701 -0.4031752
0 0 0
-1.7069051 5.902781 -0.24627161
-1.1238565 5.8515949 -0.27497464
0 0 0
-0.027835304 5.8147564 -0.33603263
-1.7049869 5.9232192 -0.10262142
-1.1223708 5.8771114 -0.137989
-0.5215534 5.4076538 -0.15346169
-0.029794579 5.8160744 -0.19970351
-0.012533117 5.8009629 -1.0428659
-0.015531594 5.7984691 -0.64596325
0.034921445 5.8246665 0.23539224
-1.6393059 5.9112043 0.35461959
0.032940593 5.8252826 0.47161388
-1.6547482 5.9270225 0.75071514
0.027893523 5.8196497 1.0514718
-1.5821209 5.8671002 1.617619
-1.6843497 5.9142747 0.037323631
-1.1113516 5.8706465 0
0 0 0
0.0027483255 5.8142266 -0.066522561
-1.661375 5.9234295 0.17714183
-1.0815758 5.8695035 0.13764
-0.52298963 5.8406782 0.10166026
0.018943179 5.8141909 0.066521749
0 0 0
-1.6729823 5.9128771 -1.5937555
-1.5469832 5.5274429 -0.79198897
-1.6388025 5.9094205 -0.57594371
-1.7091142 5.9152179 -0.38917771
-1.0220731 5.3042426 -0.3749418
-0.52366096 5.2689428 -0.39789015
-0.020464875 5.8054643 -0.46998984
-1.6512789 5.9030223 -0.24566703
-1.0753263 5.8810182 -0.27590281
0 0 0
0.024964312 5.8197618 -0.33632308
-1.6471292 5.9240022 -0.1023701
-1.0654079 5.867384 -0.13752477
-0.45773235 5.2428718 -0.148626
0.022966519 5.8111086 -0.19953077
0.03097165 5.7959738 -1.0419753
0.027985455 5.7984228 -0.64596325
0.078561321 5.8192449 0.23518896
-1.5920222 5.9086061 0.35374829
0.075640872 5.8248849 0.47161388
-1.6073456 5.9246273 0.74888712
0.070681423 5.8291259 1.0532615
-1.5376403 5.8689294 1.6150308
-1.6379668 5.9117255 0.037232
-1.068288 5.8786349 0
-0.45524493 5.280261 -0.030295994
0.044396386 5.819057 -0.066580154
-1.6146996 5.9156022 0.17656247
-1.0388265 5.8670673 0.1374079
-0.48179191 5.8392043 0.101573
0.059477251 5.808917 0.066464156
0 0 0
-1.6259873 5.9159379 -1.5912297
-1.5038153 5.5290785 -0.79061288
-1.5902433 5.9020534 -0.57406151
-1.6592587 5.9086666 -0.38790795
-0.98680317 5.3312082 -0.37633693
-0.48502389 5.2726398 -0.39789015
0.02110094 5.8104458 -0.47039607
-1.6063643 5.9050484 -0.24526398
-1.0280271 5.8590469 -0.27451056
0 0 0
0.065592974 5.8194456 -0.33632308
-1.6018025 5.9208832 -0.10211878
-1.0216759 5.8650093 -0.13729267
-0.42072111 5.2409573 -0.14848378
0.063534819 5.8108063 -0.19953077
0.07048697 5.8005481 -1.0428659
0.067702852 5.8179712 -0.64819264
0.1182759 5.8235703 0.23539224
-1.5479569 5.9048238 0.35287699
0.11528754 5.8242345 0.47161388
-1.5642014 5.9207659 0.74705899
0.10904878 5.8137736 1.0505769
-1.4974855 5.8743196 1.6137366
-1.5948002 5.9079809 0.037140373
-1.0225278 5.8410883 0
-0.42153302 5.2880754 -0.030324794
0.081897996 5.8136506 -0.066522561
-1.5725968 5.9114203 0.17612794
-0.9992345 5.8637986 0.13717578
-0.44433728 5.8321466 0.10139848
0.096061602 5.8134284 0.066521749
0 0 0
-1.5819175 5.9128513 -1.587441
-1.4508843 5.481751 -0.78235579
-1.4259137 5.4409695 -0.52794838
-1.6160696 5.9051061 -0.38695565
0 0 0
-0.44582003 5.2260628 -0.39411509
0.059580863 5.8051944 -0.46998984
-1.5633138 5.9010868 -0.24465936
-0.90520936 5.3632474 -0.25084183
0 0 0
0.10289205 5.8039289 -0.33545178
-1.5596976 5.9166045 -0.10186747
-0.98397672 5.8663831 -0.13717662
-0.38778317 5.2434974 -0.14848378
0.1000437 5.8102927 -0.19953077
0.1077512 5.7901335 -1.0410846
0.10406936 5.8074951 -0.64707792
0.15472615 5.817718 0.23518896
-1.5071068 5.8999286 0.35200569
0.15174498 5.8184137 0.47120765
-1.5232441 5.9160624 0.74523097
0.14544749 5.8080564 1.049682
-1.4582117 5.8742399 1.6111485
-1.5538167 5.9033823 0.037048746
-0.98747337 5.8572583 0
-0.38902789 5.3005929 -0.030382393
0.11853082 5.8180194 -0.066580154
-1.5316466 5.9066744 0.17569342
-0.96177369 5.8599281 0.13694368
-0.40835479 5.8297648 0.10131121
0.13145399 5.807734 0.066464156
0 0 0
-1.5410597 5.9086342 -1.5836524
-1.3990299 5.4236388 -0.77272254
-1.3954082 5.4642873 -0.52936
-1.5750605 5.9006839 -0.38600338
-0.91617501 5.3336773 -0.37563935
-0.41101921 5.2039084 -0.39222756
0 0 0
-1.5224456 5.8962851 -0.24405478
-0.86668152 5.3392506 -0.24944958
0 0 0
0.13948148 5.808157 -0.33574221
-1.5197788 5.9115005 -0.10161615
-0.93534952 5.7933326 -0.13531974
-0.35742769 5.2707019 -0.14919491
0.13529223 5.7995815 -0.19918525
0.14223382 5.794311 -1.0419753
0.13889909 5.8216767 -0.64874995
0.18907887 5.8117042 0.23498568
-1.4684367 5.8942404 0.35113439
0.18610491 5.8124299 0.47080147
-1.485503 5.9103026 0.74340296
0.17858444 5.7972894 1.0478923
-1.4220734 5.8731551 1.6085603
-1.5160418 5.8977098 0.036957115
-0.95232868 5.8478775 0
-0.39442313 5.8214946 -0.033377435
0.15075402 5.807271 -0.066464968
-1.4949379 5.9006047 0.17525889
-0.92746341 5.8553348 0.13671157
-0.37546906 5.8269653 0.10122395
0.16374259 5.8019118 0.066406563
0 0 0
-1.5011805 5.8989253 -1.5786009
-1.3534759 5.3790288 -0.76515359
-1.3400133 5.3807182 -0.52041972
-1.5385216 5.900003 -0.38536847
-0.88462234 5.3339458 -0.37529057
-0.38357803 5.2409978 -0.39487013
0.12936981 5.7990742 -0.46958363
-1.4870383 5.89501 -0.24365172
-0.83917147 5.3588104 -0.2501457
0 0 0
0.17176561 5.802299 -0.33545178
-1.4820421 5.9056115 -0.10136483
-0.90683299 5.8231606 -0.13590002
-0.33508295 5.3873496 -0.1524661
0.16723359 5.7837515 -0.198667
0.18204318 5.7735066 -1.0384129
0.18007821 5.8056355 -0.64707792
0.21766256 5.4907317 0.22197612
-1.4226923 5.8900442 0.35026309
0.21509299 5.4972439 0.44521001
-1.4386024 5.9065704 0.74157494
0.20896251 5.4861469 0.99151558
-1.377877 5.8787208 1.6072663
-1.4691277 5.8941135 0.036865484
-0.90995121 5.8647413 0
-0.35102165 5.8292809 -0.033406232
0 0 0
-1.4482216 5.9019523 0.17496921
-0.8809793 5.8523989 0.13647945
-0.32941225 5.8247437 0.10113669
0.19783828 5.4906797 0.062835693
0 0 0
-1.4566028 5.9001245 -1.5760751
-1.2536521 5.1384511 -0.72937304
-1.2932646 5.3563061 -0.5171259
-1.4878618 5.8821039 -0.38346386
-0.84002495 5.3058033 -0.37284908
-0.3480843 5.2884445 -0.39826769
0.1718754 5.7979698 -0.46958363
-1.439185 5.8914471 -0.24304712
0 0 0
0 0 0
0.20315421 5.4816179 -0.31686395
-1.4341251 5.9019971 -0.10111351
-0.86208797 5.8299532 -0.13590002
-0.29276091 5.3898149 -0.1524661
0.20078817 5.4676714 -0.18778349
0.21031599 5.467289 -0.98319715
0.20803723 5.4815063 -0.61085051
0.25598949 5.489078 0.22197612
-1.3781108 5.8852558 0.34939179
0.25299588 5.485652 0.44439757
-1.3950421 5.9068112 0.74035621
0.24680446 5.4747262 0.98972577
-1.3357292 5.8834872 1.6059722
-1.4244035 5.8896503 0.036773857
0 0 0
-0.30978882 5.8216043 -0.033348635
0.22142209 5.4797769 -0.062721267
-1.4034983 5.897336 0.17453469
-0.83867824 5.8485107 0.13624735
-0.28849423 5.821908 0.10104943
0.23550583 5.4741802 0.062662914
0 0 0
-1.4119841 5.896039 -1.5722865
-1.2108777 5.1181688 -0.72524452
-1.2262194 5.2392163 -0.50489181
-1.3082002 5.3303471 -0.34664118
-0.79922545 5.286881 -0.37110516
-0.31756535 5.4002438 -0.40657276
0.20038302 5.4779115 -0.44358593
-1.3957081 5.8916302 -0.24264406
0 0 0
0 0 0
0.24186723 5.4900379 -0.31744483
-1.3894339 5.8972702 -0.1008622
-0.8220647 5.8407784 -0.13601606
-0.25536066 5.3967204 -0.15260832
0.23761533 5.4361839 -0.18674697
0.24802275 5.4558582 -0.98141599
0.24584396 5.4699931 -0.60973579
0.29430392 5.4871573 0.22197612
-1.3347735 5.8849988 0.34881091
0.29209501 5.4986806 0.44561619
-1.3515484 5.906734 0.73913753
0.28527981 5.4777822 0.99062067
-1.2925417 5.8832364 1.6033839
-1.3809597 5.8897171 0.036712769
-0.82028532 5.8224144 0
-0.26936856 5.82862 -0.033377435
0.25943083 5.4731045 -0.062663682
-1.3589102 5.8923831 0.17410015
-0.79715115 5.8492713 0.1361313
-0.24763183 5.8187852 0.10096216
0.27397144 5.4773955 0.062720507
0 0 0
-1.3674935 5.8916173 -1.5684979
-1.1929014 5.2037158 -0.73625392
-1.1741381 5.1796999 -0.49830425
-1.2454216 5.2325826 -0.33965757
-0.77014136 5.3466344 -0.3749418
-0.29448268 5.6861391 -0.42809057
0.23884258 5.4813576 -0.44399211
0 0 0
-0.79011256 5.8656087 -0.27311826
0 0 0
0.28018871 5.4882159 -0.31744483
-1.3459957 5.8970804 -0.10069464
-0.77927762 5.8315125 -0.13566791
-0.2168797 5.3783956 -0.15203942
0.27556095 5.4343925 -0.18674697
0.28636813 5.4589071 -0.98230654
0.28402543 5.4681435 -0.60973579
0.33260402 5.4849691 0.22197612
-1.2915077 5.8844252 0.34823006
0.32925868 5.4766107 0.44399133
-1.3081239 5.9063368 0.73791885
0.32321954 5.470747 0.98972577
-1.2504305 5.887394 1.6020899
-1.3364724 5.8845901 0.036621142
-0.78360605 5.8577332 0
-0.2282818 5.8203659 -0.033319835
0.29708073 5.4611759 -0.062548488
-1.3144599 5.8870964 0.17366563
-0.75501233 5.8447795 0.1358992
-0.20682712 5.8153758 0.1008749
0.312783 5.485332 0.062835693
0 0 0
-1.3231335 5.8868628 -1.5647091
-1.1683996 5.2650871 -0.74382287
-1.1486632 5.2363815 -0.50300962
-1.189707 5.1585121 -0.33426112
-0.74229741 5.4210606 -0.37982473
-0.25233901 5.6332674 -0.42393798
0.27684709 5.4745798 -0.44358593
-1.2948139 5.827651 -0.23921803
-0.74787647 5.8610735 -0.27265418
0 0 0
0.31820226 5.481144 -0.31715441
-1.302628 5.8965726 -0.10052711
-0.73854744 5.8368106 -0.13566791
-0.17949127 5.3847742 -0.15218166
0.31349316 5.4323363 -0.18674697
0.32447121 5.4567747 -0.98230654
0.32219306 5.4660277 -0.60973579
0.37088794 5.4825134 0.22197612
-1.2483146 5.883534 0.34764919
0.36816218 5.4841228 0.4448038
-1.2647711 5.9056215 0.73670018
0.36173382 5.4732652 0.99062067
-1.2073497 5.886519 1.5995016
-1.2921244 5.8791304 0.036529511
0 0 0
-0.18764272 5.8218174 -0.033319835
0.33519939 5.4589682 -0.062548488
-1.2712092 5.8863602 0.17337593
-0.71358258 5.8449464 0.13578314
-0.16608211 5.8116817 0.10078765
0.35074553 5.4780259 0.0627781
0 0 0
-1.2799389 5.8865042 -1.5621834
-1.1253501 5.2440691 -0.73969436
-1.1079286 5.2247992 -0.50112748
-1.1787988 5.2786746 -0.34156218
-0.71345145 5.4953561 -0.38470772
-0.20776832 5.4953899 -0.41336787
0.31505981 5.4725137 -0.44358593
-1.255152 5.8414326 -0.23941955
-0.70514303 5.8512759 -0.27195802
0 0 0
0.35645983 5.4787884 -0.31715441
-1.2593333 5.8957467 -0.10035955
-0.69361985 5.8070822 -0.13485552
-0.1418944 5.3858962 -0.15218166
0.35206544 5.4399886 -0.18709248
0.36288968 5.4592853 -0.98319715
0.36067688 5.4686027 -0.61029315
0.40915373 5.4797907 0.22197612
-1.204191 5.8774381 0.34677789
0.40643933 5.4814191 0.4448038
-1.2204822 5.8997302 0.7348721
0.39993528 5.4706063 0.99062067
-1.1643422 5.8853307 1.5969136
-1.2489614 5.8782282 0.036468424
-0.69697905 5.8283882 0
-0.14686976 5.8179874 -0.033291034
0.37399399 5.4664707 -0.062663682
-1.2270076 5.8804178 0.17294142
-0.67161447 5.8398533 0.13555102
-0.12550521 5.8126993 0.10078765
0.38898051 5.4754438 0.0627781
0 0 0
-1.2368139 5.8858285 -1.5596576
-1.0705286 5.1645284 -0.72730875
0 0 0
-1.1525056 5.3355379 -0.34473655
-0.6915285 5.6338639 -0.39412487
-0.16589659 5.3820882 -0.40468523
0.35325715 5.470181 -0.44358593
-1.1194862 5.395216 -0.22067711
-0.6642766 5.8560562 -0.27195802
0 0 0
0.39469996 5.4761667 -0.31715441
-1.2161136 5.8946047 -0.10019201
-0.65698075 5.8465528 -0.13566791
-0.10429059 5.386755 -0.15218166
0.39075983 5.4473648 -0.18743798
0.40099353 5.4566193 -0.98319715
0.39884579 5.4659514 -0.61029315
0.44739962 5.4768004 0.22197612
-1.1611857 5.8759103 0.34619704
0.44510496 5.4834146 0.44521001
-1.1763375 5.8935094 0.73304409
0.43811724 5.4676809 0.99062067
-1.1205018 5.8790846 1.5930312
-1.2058743 5.8770108 0.03640734
-0.65346849 5.808269 0
-0.1062493 5.8188705 -0.033291034
0.41252866 5.4687114 -0.062721267
-1.1829511 5.874145 0.1725069
-0.63029051 5.8394308 0.13543499
-0.084850632 5.808435 0.10070038
0.4271965 5.4725947 0.0627781
0 0 0
-1.1927949 5.8800983 -1.555869
-1.0129681 5.0650611 -0.71217084
-1.0426264 5.2788196 -0.50489181
-1.1090807 5.3141532 -0.34283194
-0.62802947 5.4304628 -0.37947598
-0.12808388 5.373147 -0.40393025
0.39143732 5.4675813 -0.44358593
-1.083765 5.4126949 -0.22108017
-0.62284786 5.8555846 -0.27172601
0 0 0
0.43292093 5.4732776 -0.31715441
-1.1710104 5.8833423 -0.099856921
-0.6150983 5.8410554 -0.1354358
-0.066681705 5.387352 -0.15218166
0.42957437 5.4544673 -0.18778349
0.43947753 5.4585905 -0.98408777
0.43739638 5.4679866 -0.61085051
0.48562369 5.4735436 0.22197612
-1.1173224 5.8691654 0.34532571
0.48381823 5.4851365 0.44561619
-1.1323392 5.886961 0.73121607
0.47627789 5.464489 0.99062067
-1.0776808 5.877265 1.590443
-1.1628652 5.8754783 0.036346253
0 0 0
-0.065623663 5.8194709 -0.033291034
0.45111287 5.4706807 -0.062778868
-1.1399993 5.8724489 0.17221721
-0.58900517 5.8387156 0.13531892
-0.044298366 5.8088856 0.10070038
0.46539173 5.4694791 0.0627781
0 0 0
-1.1498492 5.8787885 -1.5533433
-0.97381306 5.0525618 -0.70941848
-1.0207131 5.3641958 -0.51242048
-1.0521429 5.2239537 -0.33648318
-0.59874928 5.5140505 -0.3850565
-0.090734728 5.3838797 -0.40468523
0.42959839 5.4647155 -0.44358593
-1.1344461 5.8762455 -0.23982261
0 0 0
0 0 0
0.47112072 5.4701219 -0.31715441
-1.1289624 5.8864646 -0.099773146
-0.5718534 5.8203344 -0.13485552
-0.03119456 5.8075109 -0.16412863
0.46807498 5.4563136 -0.18795626
0.47757468 5.455389 -0.98408777
0.4755592 5.4647999 -0.61085051
0.52430546 5.4749923 0.22217937
-1.0745138 5.8670044 0.34474486
0.52209961 5.4816256 0.44561619
-1.0893975 5.884964 0.72999734
0.51488167 5.4659286 0.99151558
-1.0349399 5.875134 1.5878547
-1.1199362 5.8736324 0.036285169
-0.55560148 5.6476502 0
-0.024994824 5.819787 -0.033291034
0.48929414 5.4673982 -0.062778868
-1.0962059 5.8655286 0.17178269
-0.54729182 5.8327317 0.13508682
-0.0037439428 5.8090534 0.10070038
0.50402778 5.4710751 0.062835693
0 0 0
-1.10698 5.8771653 -1.5508175
-0.9612276 5.1809468 -0.72662067
-0.98414057 5.3760862 -0.51289099
-1.038601 5.3487091 -0.3441017
-0.53899682 5.3096876 -0.37040761
-0.053194117 5.3893676 -0.40506274
0.46773854 5.4615831 -0.44358593
-1.0952295 5.8938451 -0.24022569
-0.48945582 5.3066959 -0.24573684
0 0 0
0.50929761 5.4666996 -0.31715441
0 0 0
-0.47743973 5.2367992 -0.12116107
0.0093403505 5.8025894 -0.1639864
0.50662225 5.4578876 -0.18812899
0.51611668 5.4568195 -0.98497826
0.51369876 5.4613466 -0.61085051
0.56251496 5.4711986 0.22217937
-1.0309203 5.8596172 0.34387356
0.56035554 5.4778471 0.44561619
-1.0465392 5.8826556 0.72877866
0.55252767 5.4573069 0.99062067
-0.99228132 5.8726935 1.5852666
-1.0770899 5.8714738 0.036224082
-0.51753014 5.6663289 0
0.0156204 5.8148203 -0.033262238
0.52793682 5.4688249 -0.062836461
-1.0534536 5.8632021 0.17149301
-0.50612479 5.8314309 0.13497077
0.036810663 5.808938 0.10070038
0.54270881 5.4723973 0.062893294
0 0 0
-1.0641896 5.8752308 -1.5482917
-0.9390257 5.2655244 -0.73763007
-0.94138306 5.353416 -0.51006782
-1.0169121 5.4391975 -0.34949812
-0.49767518 5.268631 -0.36726856
-0.015568241 5.3896079 -0.40506274
0.50585586 5.4581847 -0.44358593
-1.0505245 5.8816781 -0.23941955
-0.44728735 5.2502661 -0.24295227
0 0 0
0.54694688 5.458045 -0.31686395
0 0 0
-0.44128954 5.2449861 -0.12127712
0.049938481 5.8123779 -0.16427086
0.54521435 5.4591899 -0.18830176
0.55369729 5.4481897 -0.98408777
0.55231804 5.4625702 -0.61140782
0.60069716 5.4671383 0.22217937
-0.98831767 5.8568292 0.34329268
0.59749055 5.4638958 0.4448038
-1.0037662 5.8800368 0.72755992
0.59221709 5.4679861 0.99330527
-0.94970739 5.8699431 1.5826784
-1.0343282 5.8690033 0.036162995
-0.44631931 5.2961411 0
0.056214795 5.8145695 -0.033262238
0.56610322 5.4650064 -0.062836461
-1.0107869 5.8605642 0.17120332
-0.46500254 5.8298392 0.1348547
0.077363469 5.8085394 0.10070038
0.58089983 5.4684753 0.062893294
0 0 0
-1.0214803 5.8729863 -1.545766
-0.89972168 5.2573104 -0.73556584
-0.89482659 5.3058729 -0.50489181
0 0 0
-0.46044493 5.2670083 -0.36691976
0.022754511 5.5491271 -0.41714293
0.54394853 5.4545202 -0.44358593
-1.0051941 5.8642521 -0.23841189
-0.41101399 5.2582407 -0.24318431
0 0 0
0.58664966 5.4689813 -0.31773525
0 0 0
-0.40466219 5.2479386 -0.12127712
0.090514988 5.8118882 -0.16427086
0.58384937 5.4602189 -0.18847452
0.59279191 5.4539728 -0.98586887
0.59044021 5.458581 -0.61140782
0.63943559 5.467773 0.22238265
-0.94580436 5.8537321 0.34271184
0.6373651 5.4744391 0.44602242
-0.96108085 5.8771071 0.72634125
0.62866968 5.44906 0.99062067
-0.90722018 5.8668861 1.5800903
-0.99081564 5.8612938 0.036071364
-0.41320542 5.3489771 0
0.09663716 5.8040371 -0.033204641
0.60424209 5.4609208 -0.062836461
-0.96820885 5.8576183 0.17091364
-0.42356285 5.8229723 0.1346226
0.1177066 5.7978611 0.10052586
0.61849481 5.4593196 0.062835693
0 0 0
-0.9788543 5.8704319 -1.5432402
-0.86057824 5.2488046 -0.73350155
-0.86095679 5.3316431 -0.50677395
-0.92123652 5.3397889 -0.34219706
-0.42044935 5.2303219 -0.36412951
0 0 0
0.58148074 5.4456344 -0.4431797
0 0 0
-0.41526166 5.8338995 -0.26986963
0 0 0
0.62424374 5.4597931 -0.31744483
-0.95203096 5.8416901 -0.098516554
-0.36836639 5.2556224 -0.12139318
0.13085857 5.8011212 -0.1639864
0.62195432 5.4560099 -0.18847452
0.62971181 5.4399276 -0.98408777
0.6291073 5.4592619 -0.61196518
0.7154175 5.7655673 0.23478243
-0.90338248 5.8503275 0.34213096
0.71498966 5.7863526 0.47202009
-0.91848534 5.8738685 0.72512257
0.70648813 5.7667623 1.049682
-0.86482209 5.8635221 1.577502
-0.94826484 5.8581986 0.03601028
0 0 0
0.13739339 5.8132176 -0.033262238
0.64235145 5.4565697 -0.062836461
-0.92572099 5.854363 0.17062394
-0.38257131 5.8208008 0.13450655
0.15818012 5.7968979 0.10052586
0.65839976 5.469758 0.06300848
0 0 0
-0.93631381 5.8675694 -1.5407145
-0.82391399 5.2546844 -0.73350155
-0.82600671 5.3522816 -0.50818563
-0.88393563 5.3460898 -0.34219706
-0.38465893 5.2430782 -0.3648271
0.10260563 5.677875 -0.42695802
0.62062091 5.451344 -0.44399211
-0.92087889 5.8629107 -0.2378073
-0.37388068 5.8266878 -0.26940554
0 0 0
0.66962391 5.5147572 -0.32093006
-0.90967691 5.8383164 -0.098349012
-0.36774531 5.8267689 -0.13462341
0.17135452 5.800066 -0.1639864
0.66608423 5.5011368 -0.19020206
0.70698065 5.7527776 -1.0419753
0 0 0
0.75826979 5.7802429 0.23559552
-0.86105424 5.8466163 0.34155005
0.75601882 5.7861614 0.47242633
-0.87598211 5.8703218 0.72390389
0.7480042 5.7714462 1.0514718
-0.82251531 5.8598528 1.5749139
-0.90580571 5.854795 0.035949193
-0.36673367 5.7983279 0
0.17766474 5.8021216 -0.033204641
0.72223932 5.7843103 -0.066695347
-0.88332599 5.850801 0.17033425
-0.34163079 5.8183393 0.13439049
0 0 0
0.73542726 5.7675228 0.066521749
0 0 0
-0.89459449 5.8691807 -1.5394515
-0.80270755 5.3631482 -0.74795145
-0.79664814 5.4120817 -0.51336157
-0.84502196 5.3422756 -0.34156218
-0.351037 5.2904267 -0.36796615
0.14539587 5.8016243 -0.43639565
0.65926605 5.4518251 -0.44439834
-0.87768984 5.8543768 -0.2372027
-0.33348057 5.8341427 -0.26963758
0 0 0
0.74144793 5.7673583 -0.33603263
-0.87259495 5.8692465 -0.098767877
-0.32677653 5.824204 -0.13450736
0.20006509 5.4790745 -0.15488394
0.74032021 5.7738795 -0.19987626
0.74904138 5.7623367 -1.044647
0.74767709 5.775136 -0.64874995
0.79929394 5.779757 0.23579879
-0.81951916 5.8475428 0.34125966
0.79639512 5.7807422 0.47242633
-0.8335731 5.8664684 0.72268516
0.78894889 5.7709556 1.0523666
-0.78030187 5.8558779 1.5723256
-0.86344033 5.8510852 0.035888109
-0.3262451 5.8007469 0
0.20642872 5.4909673 -0.031419136
0.76194483 5.7741709 -0.066637754
-0.84102601 5.8469324 0.17004457
-0.3010031 5.8205829 0.13439049
0.22540028 5.4644599 0.094766557
0.77701712 5.7721562 0.066636942
0 0 0
-0.8521983 5.8657093 -1.5369258
-0.77580327 5.4421535 -0.75827271
-0.763713 5.452014 -0.51665533
-0.80695504 5.3431115 -0.34124476
0 0 0
0.18525116 5.7805347 -0.43488562
0.73811293 5.763412 -0.47039607
0 0 0
-0.29249099 5.8313398 -0.26940554
0 0 0
0.78169322 5.762042 -0.33603263
-0.82807255 5.8504486 -0.098349012
-0.28586149 5.8213506 -0.13439131
0.23721668 5.4525785 -0.15417282
0.77926177 5.7586679 -0.19953077
0.79059714 5.7667141 -1.0464281
0.78797656 5.7697754 -0.64874995
0.83962435 5.7740359 0.23579879
-0.77735049 5.8432264 0.34067878
0.83817124 5.7849035 0.47323874
-0.79126072 5.8623104 0.72146648
0.82992327 5.7701759 1.0532615
-0.73879272 5.8563914 1.5710316
-0.82117105 5.8470693 0.035827022
-0.28722703 5.8328462 0
0.24475756 5.4893923 -0.031419136
0.80223727 5.7687106 -0.066637754
-0.798823 5.8427582 0.16975489
-0.26013571 5.8175483 0.13427444
0.26281619 5.447773 0.094504774
0.81658894 5.761642 0.066579342
0 0 0
-0.80989426 5.8619323 -1.5344
-0.7391305 5.4572511 -0.75964892
0 0 0
-0.83693928 5.8128123 -0.37108383
-0.28580865 5.4591818 -0.37947598
0.2134663 5.4702239 -0.41148034
0.77833086 5.7581186 -0.47039607
-0.79383558 5.8512111 -0.2365981
-0.25177372 5.83324 -0.26940554
0 0 0
0.82332104 5.766326 -0.33661351
-0.78787959 5.8610411 -0.098432787
-0.24457836 5.8082218 -0.13404314
0.27603796 5.4657645 -0.15459949
0.82086396 5.76298 -0.19987626
0.83083683 5.7610545 -1.0464281
0.82966024 5.7739697 -0.64986467
0.88067228 5.7729712 0.23600206
-0.73528206 5.8386073 0.3400979
0.87853682 5.7789111 0.47323874
-0.74841297 5.8529253 0.71963841
0.87092513 5.769105 1.0541564
-0.69673944 5.8518167 1.5684434
-0.77966553 5.8477039 0.035796478
-0.2458608 5.8197227 0
0.28333357 5.4925432 -0.031447936
0.84176278 5.7580237 -0.066580154
-0.75671935 5.8382812 0.16946521
-0.21951558 5.8192225 0.13427444
0.30084214 5.4458055 0.094504774
0.85827398 5.7656894 0.066694535
0 0 0
-0.7683177 5.8626466 -1.5331371
-0.70419037 5.486836 -0.76308936
-0.73638135 5.8473272 -0.55335766
-0.79906416 5.8382864 -0.37235355
-0.24723369 5.4510779 -0.3787784
0.25188068 5.4735808 -0.41185784
0.81921721 5.7574778 -0.47080228
-0.75232571 5.851656 -0.23639657
-0.21049778 5.8198814 -0.26870939
0 0 0
0.86355716 5.760438 -0.33661351
-0.74567074 5.8564806 -0.098265238
-0.20455489 5.8247747 -0.13439131
0.31332344 5.4487352 -0.15417282
0.86107689 5.7571092 -0.19987626
0 0 0
0.86845839 5.7582111 -0.64874995
0.92095333 5.7666826 0.23600206
-0.6939097 5.8386421 0.33980748
0.91885942 5.7726374 0.47323874
-0.70453572 5.8333755 0.71659166
0.91195244 5.7677426 1.0550513
-0.65532768 5.8517385 1.5671493
-0.73756015 5.8430848 0.035735391
-0.20504783 5.8163004 0
0.32196546 5.4954228 -0.031476732
0.88270289 5.7569475 -0.066637754
-0.71532989 5.8384619 0.16932036
-0.17872944 5.8156166 0.13415839
0.33885339 5.4435725 0.094504774
0.89850485 5.7595572 0.066694535
0 0 0
-0.72617102 5.8582673 -1.5306114
0 0 0
-0.69376576 5.8374987 -0.55194604
-0.69682133 5.373682 -0.34219706
-0.22308354 5.8115253 -0.40389079
0.28982174 5.4667101 -0.41148034
0.85939175 5.7516184 -0.47080228
-0.71145546 5.8567653 -0.23639657
-0.17000985 5.8262014 -0.26894146
0 0 0
0.90453023 5.7591987 -0.33690393
-0.70296258 5.8466549 -0.098013923
-0.16360125 5.8160667 -0.13415919
0.35200164 5.4563899 -0.15445727
0.90124774 5.750957 -0.19987626
0.91041797 5.7440338 -1.0455376
0.9101966 5.7618222 -0.64986467
0.96201682 5.7650394 0.23620534
-0.65201366 5.8334241 0.3392266
0.95995992 5.770997 0.47364494
-0.66435945 5.843082 0.71720105
0.95300329 5.7660885 1.0559462
-0.61344284 5.8465657 1.5645611
-0.6961537 5.8431273 0.035704847
-0.16472395 5.8275862 0
0.35999382 5.4880519 -0.031447936
0.92366886 5.7555804 -0.066695347
-0.67397463 5.8383489 0.16917552
-0.13812476 5.8167229 0.13415839
0.37719512 5.4460616 0.094592042
0.93950164 5.7580781 0.066752128
0 0 0
-0.6846891 5.8583894 -1.5293485
-0.59974802 5.2550573 -0.72937304
0 0 0
-0.66480124 5.422986 -0.345054
0 0 0
0.32827926 5.4695311 -0.41185784
0.89952439 5.7454782 -0.47080228
-0.66940558 5.8516636 -0.23599352
-0.12831949 5.7823062 -0.26685303
0 0 0
0.94552827 5.757668 -0.33719438
-0.66269517 5.8563871 -0.098097697
0 0 0
0.3904438 5.4587851 -0.15459949
0.94137472 5.7445254 -0.19987626
0 0 0
0.95039916 5.7553277 -0.64986467
1.0022405 5.758183 0.23620534
-0.61074877 5.83287 0.33893618
1.0002253 5.7641549 0.47364494
-0.62408203 5.8525124 0.71781039
0.99407524 5.7641411 1.056841
-0.57166213 5.8410931 1.5619729
-0.65478271 5.842876 0.035674304
0 0 0
0.39829856 5.485405 -0.031447936
0.9646588 5.7539225 -0.066752948
-0.63265598 5.837944 0.16903068
-0.097427845 5.8125482 0.13404234
0.41558805 5.4482794 0.094679296
0.97967738 5.751379 0.066752128
0 0 0
-0.64270842 5.8534098 -1.5268228
-0.55932057 5.2246504 -0.72455645
-0.54839826 5.2426834 -0.49453992
-0.63732713 5.5167089 -0.35076788
-0.13709965 5.6196084 -0.39028823
0.36612067 5.462131 -0.41148034
0.94042271 5.7439756 -0.47120848
-0.62692368 5.8412933 -0.2353889
0 0 0
0 0 0
0.98654896 5.755846 -0.33748481
0 0 0
-0.082452744 5.8227825 -0.13427524
0.42893642 5.4609089 -0.15474172
0.98230296 5.7427382 -0.20004903
0.73945898 4.2862453 -0.78014559
0.99140382 5.753449 -0.65042204
1.0433115 5.7559605 0.23640862
-0.56952339 5.8320236 0.33864576
1.0413331 5.7619343 0.47405118
-0.58271253 5.8517885 0.71720105
1.034292 5.7570605 1.056841
-0.53042901 5.8401322 1.5606787
-0.61344922 5.8423338 0.035643764
-0.082828961 5.7943215 0
0.43618551 5.4775066 -0.031419136
1.0056704 5.7519717 -0.066810533
-0.59137583 5.8372464 0.16888584
-0.056795973 5.8080878 0.13392627
0.45444694 5.4552093 0.094853826
1.0206838 5.7493205 0.066809721
0 0 0
-0.60132957 5.852942 -1.5255599
-0.52432597 5.2432098 -0.72662067
-0.50787759 5.2067537 -0.49077553
0 0 0
-0.10052809 5.7700391 -0.40075174
0.40424433 5.4594421 -0.41148034
0.98134392 5.7421818 -0.47161469
-0.58612889 5.8455272 -0.2353889
-0.047786951 5.8085065 -0.26801327
0 0 0
1.0275903 5.7537317 -0.33777526
0 0 0
-0.041687831 5.8082213 -0.13392709
0.46705002 5.4577808 -0.15474172
1.0223705 5.7357407 -0.20004903
0.76673537 4.2664542 -0.77747381
1.0324284 5.7512765 -0.65097934
1.0843999 5.7534447 0.23661189
-0.5278846 5.8259158 0.33806485
1.0824585 5.7594204 0.47445735
-0.5418455 5.8557134 0.71720105
1.0753666 5.7545342 1.0577359
-0.48882958 5.8340683 1.5580907
-0.57215512 5.8414984 0.03561322
-0.042605657 5.8247576 0
0.47441477 5.474328 -0.031419136
1.0467019 5.7497287 -0.066868134
-0.55013627 5.836257 0.168741
-0.016215403 5.7983456 0.13369417
0.49297151 5.4568834 0.094941087
1.0617092 5.7469702 0.066867314
0 0 0
-0.55952322 5.8473663 -1.5230341
-0.48909944 5.2615347 -0.72868496
-0.47015426 5.1953011 -0.48936391
-0.54040456 5.3314767 -0.33838782
-0.060621306 5.8055129 -0.40319321
0.44234827 5.4564867 -0.41148034
1.0214077 5.7351909 -0.47161469
0 0 0
-0.0072507784 5.8186879 -0.26847735
0 0 0
1.0686499 5.7513237 -0.33806565
-0.48207074 5.2467504 -0.087626129
-0.0011354998 5.8033719 -0.13381103
0.50560337 5.4593635 -0.15488394
1.0633042 5.7333765 -0.20022179
0.79286146 4.2416568 -0.77391148
1.073471 5.7488122 -0.6515367
1.1255041 5.7506361 0.23681515
-0.4867793 5.8244858 0.33777446
1.1235995 5.7566137 0.47486359
-0.50009739 5.8494663 0.71598238
1.1164564 5.7517152 1.0586308
-0.44771466 5.8325243 1.5567966
-0.53090262 5.8403707 0.035582677
-0.0019509438 5.8399134 0
0.51215303 5.4659047 -0.031390335
1.087751 5.7471929 -0.066925727
-0.50893933 5.8349771 0.16859615
0.024245558 5.7933183 0.13357811
0.53251374 5.468235 0.095202871
1.1027517 5.7443275 0.066924915
0 0 0
-0.51825595 5.8463116 -1.5217713
-0.45021012 5.2401519 -0.72524452
-0.43806437 5.2480583 -0.49406934
-0.49748382 5.2755113 -0.33457857
-0.020051729 5.7958193 -0.40249565
0.4804306 5.4532652 -0.41148034
1.0623341 5.7328196 -0.47202092
-0.45241293 5.2558923 -0.21120512
0.033425219 5.8285856 -0.26894146
0 0 0
1.1097261 5.7486238 -0.33835611
-0.44714171 5.2699127 -0.087961219
0.039379373 5.8032379 -0.13381103
0.54370421 5.4557004 -0.15488394
1.1033044 5.7258134 -0.20022179
0.83189273 4.2843051 -0.7828173
1.1145295 5.7460551 -0.65209401
1.166622 5.7475343 0.23701844
-0.44571963 5.8227658 0.337484
1.1647542 5.7535129 0.47526979
-0.45885572 5.8478675 0.71537304
1.1575592 5.7486024 1.0595256
-0.40664509 5.8306894 1.5555024
-0.48969385 5.8389521 0.035552133
0.03872481 5.8247852 0
0.54979676 5.457221 -0.031361539
1.1288158 5.7443643 -0.066983327
-0.46778715 5.8334064 0.16845132
0.064635545 5.7880101 0.13346207
0.5696342 5.4544396 0.095028341
1.1438088 5.7413917 0.066982508
0 0 0
-0.47703058 5.8449659 -1.5205084
-0.40888113 5.1839271 -0.71698749
-0.39795521 5.2063222 -0.48983446
-0.45932424 5.2639437 -0.33362627
0.019157354 5.3967943 -0.37459299
0.51896316 5.454742 -0.41185784
1.1042237 5.7350488 -0.47283334
-0.41371447 5.2340221 -0.21019746
0.073991492 5.818222 -0.26847735
0 0 0
1.1508166 5.7456293 -0.33864656
-0.41151944 5.2878571 -0.088212535
0.079825148 5.7978234 -0.13369498
0.58231068 5.4567418 -0.15502617
1.1442353 5.7228699 -0.20039453
0 0 0
1.1556016 5.7430048 -0.65265137
1.2077514 5.7441373 0.23722172
-0.4047077 5.8207555 0.33719358
1.2069478 5.7549944 0.47608221
-0.41730246 5.8410287 0.7141543
1.1986727 5.7451959 1.0604205
-0.3659296 5.8333864 1.5555024
-0.4485307 5.8372445 0.035521593
0.079388209 5.8243728 0
0.58841908 5.458221 -0.031390335
1.1698939 5.741241 -0.06704092
-0.4266817 5.8315454 0.16830647
0.1049526 5.7824202 0.13334601
0.60825479 5.4552984 0.095115609
1.1848787 5.7381616 0.067040101
0 0 0
-0.43584931 5.843329 -1.5192455
-0.37412128 5.2064123 -0.71973985
-0.36299816 5.2288356 -0.49171662
-0.41973236 5.2322078 -0.33140418
0.056429394 5.3566284 -0.37180275
0.55652332 5.4460263 -0.41148034
1.1452154 5.7320862 -0.47323954
-0.38517576 5.3464017 -0.21463116
0.11460821 5.8175635 -0.26847735
0 0 0
1.1919192 5.742342 -0.33893698
-0.37244368 5.2606821 -0.087709889
0.12029932 5.7971249 -0.13369498
0.62095803 5.4575095 -0.1551684
1.1851785 5.7196341 -0.20056729
0 0 0
1.1966856 5.7396603 -0.65320867
1.24889 5.7404461 0.23742498
-0.36374557 5.8184581 0.33690313
1.248157 5.751297 0.47648844
-0.37586713 5.8338952 0.71293563
1.2408379 5.7463021 1.0622102
-0.32492337 5.8309765 1.5542083
-0.40741536 5.8352466 0.035491049
0.12014896 5.8286757 0
0.62879825 5.4738483 -0.031505533
1.2109835 5.7378254 -0.067098513
-0.38595977 5.8343821 0.16830647
0.14519472 5.7765489 0.13322996
0.64632475 5.4509187 0.095115609
1.2259592 5.7346387 0.067097694
0 0 0
-0.39471412 5.841403 -1.5179826
-0.34297496 5.2879653 -0.73074925
-0.36398959 5.8224134 -0.54771113
-0.38467395 5.2549157 -0.33267394
0.10116053 5.7849932 -0.40179807
0.59670091 5.461832 -0.41299033
1.1862196 5.7288308 -0.47364578
0 0 0
0.15521935 5.8166218 -0.26847735
0 0 0
1.2330322 5.7387605 -0.33922741
-0.37290949 5.8368688 -0.097343743
0.16049372 5.7861505 -0.13346286
0.65784061 5.4431181 -0.15488394
1.2261326 5.7161059 -0.20074004
0 0 0
1.2388315 5.7408781 -0.6543234
1.2900361 5.7364607 0.23762827
-0.32283533 5.8158727 0.3366127
1.2893735 5.7473044 0.47689465
-0.33484089 5.8314228 0.71232629
1.2820007 5.7423 1.0631051
-0.28396863 5.82828 1.5529143
-0.36634979 5.8329582 0.035460506
0.16083753 5.8276949 0
0.69187349 5.6728072 -0.032686267
1.2531533 5.7389984 -0.067213707
-0.34491915 5.8319459 0.16816163
0.18504253 5.7604065 0.13288179
0.72560269 5.7736363 0.1008749
1.2670481 5.7308207 0.067155294
0 0 0
-0.35362712 5.8391871 -1.5167197
-0.31012565 5.3594446 -0.74038249
-0.32361341 5.8297825 -0.54818171
0 0 0
0.1420251 5.8040919 -0.40319321
0.63423949 5.4525814 -0.41261283
1.227234 5.7252817 -0.47405201
-0.32345104 5.5706973 -0.22349855
0.19049595 5.6556578 -0.26105189
0 0 0
1.2741531 5.7348838 -0.33951783
-0.33157438 5.8293481 -0.097176194
0.19315191 5.5600824 -0.12824041
0.73843175 5.7705355 -0.16441306
1.267095 5.7122841 -0.2009128
0.95227152 4.2642069 -0.78370792
1.2799665 5.7369385 -0.65488076
1.3323221 5.7370453 0.23803481
-0.28197894 5.8129988 0.33632228
1.3305953 5.7430172 0.47730088
-0.29361299 5.8237062 0.71110761
1.3242778 5.742795 1.0648948
-0.24306732 5.825295 1.5516201
-0.32533595 5.8303819 0.035429962
0.19159977 5.5365996 0
0.74557012 5.7769279 -0.033319835
1.2942933 5.7349863 -0.0672713
-0.30366629 5.8242302 0.16787195
0.2136351 5.45928 0.12591855
0.76655167 5.7733855 0.10096216
1.3092613 5.7315817 0.06727048
0 0 0
-0.3125903 5.8366838 -1.5154569
-0.29605311 5.8115444 -0.80299848
-0.28266051 5.8269281 -0.54771113
-0.32537958 5.493875 -0.34759349
0.18207674 5.788003 -0.40214685
0.7108413 5.759747 -0.43639565
1.2682565 5.7214384 -0.47445819
-0.29753894 5.8222785 -0.23357514
0.22333156 5.4895015 -0.25339437
0 0 0
1.3152798 5.7307129 -0.33980829
-0.29036251 5.8215356 -0.097008653
